ply
format ascii 1.0
element vertex 1703
property float x
property float y
property float z
end_header
-0.197265 -0.085290 0.226219
-0.190879 -0.085041 0.229558
-0.184440 -0.084814 0.231800
-0.178103 -0.084751 0.232799
-0.171740 -0.084789 0.231942
-0.165387 -0.085024 0.229719
-0.158861 -0.085384 0.226881
-0.152450 -0.085430 0.226021
-0.146019 -0.085437 0.226071
-0.139616 -0.085404 0.225863
-0.133104 -0.085605 0.224567
-0.126776 -0.085647 0.222571
-0.120336 -0.085978 0.219361
-0.113907 -0.086262 0.215311
-0.107481 -0.086410 0.213996
-0.101078 -0.086449 0.212847
-0.094556 -0.086250 0.214752
-0.088142 -0.085984 0.218147
-0.081672 -0.085677 0.221179
-0.075307 -0.085522 0.222830
-0.068970 -0.085513 0.222909
-0.062574 -0.085697 0.221644
-0.056297 -0.085787 0.219627
-0.049850 -0.086122 0.215654
-0.043247 -0.086520 0.212042
-0.036805 -0.086591 0.209981
-0.030495 -0.086734 0.209739
-0.025055 -0.086817 0.212603
-0.017896 -0.085438 0.226056
-0.382558 0.071081 -0.010165
-0.381125 0.071023 -0.016616
-0.410760 0.134087 0.130864
-0.378856 0.088846 0.073231
-0.383776 0.071119 -0.003669
-0.379598 0.070920 -0.023035
-0.382994 0.027311 -0.041932
0.176673 0.231891 -0.011884
0.040332 -0.079438 0.307239
0.046638 -0.079214 0.310490
0.053132 -0.079048 0.312572
0.059471 -0.079044 0.313023
0.065912 -0.079161 0.311285
0.072458 -0.079475 0.308582
0.078762 -0.079325 0.308850
0.085160 -0.079203 0.310648
0.091614 -0.079108 0.312058
0.097986 -0.079016 0.313106
0.104418 -0.078944 0.314040
0.110885 -0.078932 0.314049
0.117305 -0.078973 0.313742
0.123651 -0.079138 0.311848
0.130501 -0.079402 0.309166
0.136557 -0.079314 0.308758
0.142927 -0.079194 0.310399
0.149387 -0.079128 0.311491
0.155822 -0.079093 0.312156
0.162250 -0.079110 0.311809
0.168681 -0.079150 0.311595
0.175129 -0.079156 0.311626
0.181583 -0.079231 0.311047
0.188011 -0.079311 0.310197
0.194434 -0.079352 0.309285
0.200931 -0.079501 0.308045
0.207310 -0.079585 0.306261
0.213702 -0.079734 0.303792
-0.266466 0.371468 0.161331
0.252166 0.129784 0.182785
-0.389774 0.193265 -0.062082
0.151312 0.230883 0.034001
-0.345352 0.179014 0.269560
0.117300 0.130702 0.200696
0.438250 0.057902 -0.011439
0.277876 0.129688 0.179666
0.162259 0.121968 0.209400
0.155923 0.121749 0.208963
-0.088232 0.137876 0.151698
0.290530 -0.081907 0.273918
0.033743 0.138403 0.170711
0.117319 0.139469 0.194949
0.219948 0.139058 0.189755
-0.145998 0.383710 0.008955
0.012984 0.190677 -0.053938
-0.011208 0.146271 0.141498
0.059596 0.147318 0.171981
-0.126766 0.440287 -0.022449
-0.126583 0.154974 0.128670
-0.347265 0.281114 -0.075522
-0.287491 0.305732 0.235218
-0.348836 0.307897 -0.062783
0.115500 0.478046 -0.209989
-0.306597 0.188776 0.284450
0.436355 -0.069260 -0.120357
0.230939 0.188609 -0.110398
0.458477 0.004825 -0.017831
-0.319440 0.225147 0.282895
-0.281035 0.332438 0.212308
-0.300239 0.170748 0.286568
0.425995 0.038955 -0.088352
0.455636 -0.004286 0.065587
-0.101085 0.120041 0.165255
0.437300 0.021780 0.104160
0.421842 0.084549 0.046364
-0.075323 0.469048 -0.042249
0.443782 0.040072 -0.037042
-0.044141 0.202745 -0.028096
-0.266488 0.412490 -0.110949
-0.262120 0.407531 -0.109289
-0.232173 0.391321 0.078941
0.269134 0.212720 0.086305
-0.241558 0.382027 0.131809
-0.072989 0.208256 0.036890
-0.220877 0.374885 0.148795
0.256038 0.223227 0.053955
-0.264627 0.432849 -0.147489
0.196613 0.234749 0.023067
-0.387625 0.370074 0.043753
-0.255329 0.458540 -0.430145
-0.017794 0.184524 -0.065519
0.305711 0.201339 0.053953
0.311003 0.198326 0.055906
-0.294368 0.389824 -0.046462
-0.288570 0.389991 -0.043908
0.145827 0.037645 0.232412
-0.262040 0.439574 -0.165045
-0.257326 0.435309 -0.163270
-0.255105 -0.076643 0.221556
-0.248814 -0.076544 0.224303
-0.242323 -0.076345 0.225686
-0.235908 -0.076224 0.226318
-0.229524 -0.076399 0.225888
-0.223112 -0.076387 0.224751
-0.216683 -0.076593 0.223435
-0.210234 -0.076551 0.223168
-0.203765 -0.076488 0.223941
-0.197323 -0.076321 0.226408
-0.190873 -0.076052 0.229565
-0.184494 -0.075871 0.232094
-0.178121 -0.075798 0.233100
-0.171732 -0.075977 0.231869
-0.165296 -0.076027 0.230907
-0.158866 -0.076109 0.230118
-0.152455 -0.076075 0.230027
-0.146000 -0.076224 0.229501
-0.139568 -0.076278 0.228638
-0.133195 -0.076273 0.227573
-0.126757 -0.076336 0.226737
-0.120385 -0.076539 0.223270
-0.113997 -0.076874 0.219116
-0.107533 -0.077081 0.216629
-0.101032 -0.077309 0.214141
-0.094611 -0.077165 0.215830
-0.088113 -0.076834 0.219760
-0.081684 -0.076639 0.222199
-0.075301 -0.076499 0.223744
-0.068964 -0.076506 0.224010
-0.062590 -0.076579 0.223213
-0.056314 -0.076758 0.220467
-0.049762 -0.077157 0.215900
-0.043269 -0.077512 0.212013
-0.036844 -0.077637 0.210376
-0.030565 -0.077685 0.210778
-0.024843 -0.077534 0.214697
-0.017231 -0.075848 0.229827
-0.267289 0.522201 -0.430090
-0.393146 0.036733 -0.009939
-0.395772 0.036816 -0.003409
-0.377655 0.053213 -0.042095
-0.377547 0.070837 -0.028768
-0.401001 0.028756 0.060639
-0.401781 0.028773 0.054253
0.169313 0.230838 -0.014609
0.040309 -0.070595 0.306516
0.046668 -0.070360 0.309711
0.053096 -0.070258 0.311202
0.059468 -0.070165 0.312311
0.066127 -0.070266 0.310103
0.072304 -0.070513 0.307676
0.078739 -0.070438 0.308512
0.085129 -0.070329 0.310108
0.091600 -0.070248 0.311318
0.098035 -0.070202 0.312038
0.104434 -0.070151 0.312411
0.110883 -0.070121 0.312521
0.117320 -0.070149 0.312084
0.123745 -0.070305 0.310542
0.130125 -0.070476 0.308041
0.136550 -0.070441 0.308476
0.142920 -0.070278 0.310462
0.149377 -0.070228 0.311586
0.155786 -0.070114 0.312097
0.162236 -0.070188 0.311857
0.168674 -0.070194 0.311895
0.175111 -0.070206 0.311940
0.181529 -0.070199 0.312114
0.187963 -0.070249 0.311507
0.194410 -0.070300 0.310788
0.200905 -0.070425 0.309564
0.207316 -0.070531 0.307867
0.213728 -0.070699 0.305468
0.213602 0.232180 0.056756
-0.374681 0.070516 -0.035775
0.421677 0.084446 0.052775
0.423371 0.084594 0.020670
-0.274467 0.143509 0.279936
-0.306641 0.143515 0.280763
-0.393122 0.114813 -0.017072
-0.145921 0.137478 0.150561
0.352688 0.155731 0.108141
0.429015 0.075795 0.001398
0.284232 -0.072950 0.272680
0.290652 -0.073106 0.270385
0.296960 -0.073346 0.268477
0.245571 0.129771 0.186442
0.207155 0.139302 0.192424
0.405135 0.074299 -0.088475
0.203202 0.234345 0.025469
-0.004841 0.146419 0.143218
0.065884 0.147665 0.174687
0.045998 0.199200 0.079892
-0.132902 0.154999 0.131105
0.241449 0.228905 0.039445
-0.029807 0.535053 -0.098898
-0.231234 0.345707 -0.170366
0.446260 0.040207 -0.005024
-0.300179 0.188821 0.284731
-0.219322 0.476222 -0.440852
-0.397876 0.020013 0.079866
0.458670 0.004879 -0.011437
-0.312958 0.225173 0.281658
-0.224584 0.416048 -0.279649
-0.282225 0.389156 -0.041591
0.162243 0.174922 0.172244
0.454828 -0.004348 0.072005
0.412574 0.074780 -0.069238
0.149457 0.174524 0.173410
-0.081661 0.468983 -0.039639
-0.088246 0.468945 -0.039052
-0.307375 0.449946 -0.180541
-0.276313 0.420197 -0.114493
-0.271294 0.416510 -0.112622
-0.199781 0.378636 0.118644
0.252315 0.220086 0.080106
-0.247579 0.383703 0.129672
-0.079018 0.209650 0.034680
0.261685 0.220844 0.056016
-0.280478 0.442027 -0.153333
0.216724 0.233946 0.030411
-0.286321 0.395784 -0.062207
-0.363388 0.017397 -0.087067
0.294818 0.206881 0.049932
0.300175 0.203940 0.051897
0.145690 0.189977 0.153341
-0.348807 0.366047 0.142926
-0.276784 0.449677 -0.170432
-0.271973 0.446928 -0.168757
-0.266723 0.443800 -0.166815
0.023870 -0.046651 0.287896
-0.335774 0.153066 0.267921
-0.255924 -0.067582 0.223645
-0.248710 -0.067267 0.226465
-0.242364 -0.067250 0.227459
-0.235955 -0.067279 0.227606
-0.229532 -0.067237 0.227456
-0.223107 -0.067325 0.226773
-0.216684 -0.067357 0.225794
-0.210275 -0.067587 0.224660
-0.203815 -0.067432 0.224935
-0.197370 -0.067316 0.226477
-0.190822 -0.067048 0.229317
-0.184456 -0.066873 0.231952
-0.178137 -0.066817 0.233185
-0.171695 -0.066745 0.233775
-0.165294 -0.066732 0.233929
-0.158884 -0.066739 0.234061
-0.152454 -0.066752 0.234091
-0.146085 -0.066660 0.233619
-0.139621 -0.066876 0.232395
-0.133208 -0.066929 0.231536
-0.126792 -0.067151 0.229193
-0.120099 -0.067550 0.225730
-0.113837 -0.067715 0.221408
-0.107600 -0.067827 0.219821
-0.101016 -0.068179 0.216333
-0.094666 -0.068160 0.216202
-0.088158 -0.067832 0.219928
-0.081754 -0.067654 0.222436
-0.075312 -0.067524 0.223823
-0.068973 -0.067474 0.224716
-0.062642 -0.067520 0.223756
-0.056311 -0.067696 0.221133
-0.049856 -0.067979 0.217137
-0.043274 -0.068327 0.213462
-0.036816 -0.068429 0.211741
-0.030374 -0.068327 0.213509
-0.024385 -0.068199 0.217400
-0.017319 -0.066955 0.228948
0.100303 0.216303 -0.040256
0.108327 0.218795 -0.037278
-0.247740 0.530583 -0.447309
-0.385135 0.027428 -0.035450
-0.425116 0.211942 0.021227
0.005936 -0.004505 -0.228400
0.154598 0.228840 -0.020090
0.162341 0.230234 -0.017187
0.040226 -0.061819 0.304390
0.046703 -0.061648 0.307311
0.053130 -0.061520 0.309502
0.059546 -0.061467 0.310247
0.065899 -0.061477 0.309148
0.072307 -0.061562 0.307864
0.078762 -0.061490 0.309078
0.085167 -0.061433 0.309899
0.091569 -0.061404 0.310143
0.098019 -0.061407 0.310505
0.104450 -0.061395 0.310523
0.110872 -0.061336 0.311385
0.117286 -0.061309 0.311542
0.123795 -0.061427 0.310025
0.130146 -0.061542 0.308344
0.136551 -0.061489 0.309212
0.142958 -0.061397 0.310409
0.149390 -0.061315 0.310511
0.155810 -0.061343 0.310436
0.162252 -0.061340 0.310724
0.168678 -0.061357 0.310774
0.175105 -0.061308 0.311064
0.181536 -0.061307 0.311079
0.187954 -0.061359 0.310730
0.194417 -0.061388 0.310177
0.200862 -0.061454 0.309437
0.207280 -0.061574 0.307764
0.213658 -0.061705 0.306011
0.220173 -0.061842 0.303956
0.007484 0.197286 -0.009165
0.130382 -0.021518 -0.285177
0.369281 0.142514 0.105153
0.008977 0.198853 0.010122
-0.319440 0.143406 0.276815
0.463063 -0.058011 0.065666
-0.133169 0.137253 0.147894
-0.113940 0.137356 0.149515
-0.101110 0.137600 0.151332
0.284172 -0.064283 0.268714
0.290514 -0.064494 0.266928
0.296949 -0.064637 0.265313
0.303366 -0.064723 0.263745
0.200750 0.139399 0.194099
-0.107453 0.213323 -0.051493
-0.312601 0.386516 -0.005553
0.426460 0.075609 -0.030710
0.072202 0.148031 0.177481
0.461161 -0.012995 0.027071
0.350587 0.131075 -0.099851
-0.299573 0.462541 -0.197143
0.155846 0.174441 0.173349
-0.075311 0.128898 0.156564
0.072338 0.173972 0.151048
-0.293660 0.188847 0.284295
0.431510 -0.024450 -0.120327
0.443777 0.013121 0.097717
0.458421 0.004809 0.001373
-0.306588 0.225077 0.279143
0.467450 -0.057737 0.001442
-0.007517 0.194543 -0.014662
-0.352184 0.178969 0.266323
0.440558 -0.005245 0.117012
-0.419801 0.203837 0.181774
0.271422 0.120773 0.185173
-0.319448 0.261018 0.268601
0.014868 0.556331 -0.119194
-0.332489 0.179238 0.274150
-0.281685 0.423132 -0.116497
-0.287708 0.425027 -0.118604
0.228800 0.227800 0.071508
-0.195692 0.386645 0.036164
0.384874 0.119360 0.111057
0.267257 0.218622 0.058254
-0.286131 0.444237 -0.155497
0.223006 0.233002 0.032676
0.017461 0.201551 0.013183
0.021019 0.193195 -0.050999
0.289490 0.209836 0.047964
0.066105 0.197241 0.106033
-0.277702 0.400743 -0.077685
-0.288884 0.454141 -0.174970
-0.282458 0.452188 -0.172541
-0.057666 0.519266 -0.090584
-0.066366 0.515991 -0.093792
-0.076161 0.510955 -0.097392
-0.395742 0.193503 -0.049244
-0.261497 -0.058547 0.223172
-0.255174 -0.058371 0.225847
-0.248673 -0.058140 0.228022
-0.242353 -0.058116 0.229096
-0.235906 -0.058001 0.229672
-0.229516 -0.058012 0.229747
-0.223111 -0.058028 0.229821
-0.216676 -0.058149 0.229316
-0.210257 -0.058179 0.228350
-0.203826 -0.058228 0.227380
-0.197336 -0.058152 0.227821
-0.190965 -0.058131 0.229064
-0.184478 -0.057941 0.231319
-0.178102 -0.057826 0.232994
-0.171668 -0.057688 0.234493
-0.165307 -0.057689 0.235017
-0.158879 -0.057623 0.235493
-0.152446 -0.057692 0.235227
-0.146065 -0.057614 0.235406
-0.139597 -0.057748 0.234200
-0.133182 -0.057869 0.232474
-0.126631 -0.058144 0.229499
-0.120243 -0.058384 0.226132
-0.113892 -0.058571 0.223559
-0.107524 -0.058830 0.220123
-0.101030 -0.059088 0.216721
-0.094654 -0.059149 0.216129
-0.088251 -0.058890 0.219405
-0.081639 -0.058676 0.222148
-0.075317 -0.058549 0.223789
-0.068963 -0.058484 0.224611
-0.062631 -0.058589 0.222746
-0.055899 -0.058921 0.219606
-0.049707 -0.059026 0.216622
-0.043270 -0.059277 0.214475
-0.036848 -0.059282 0.214516
-0.030471 -0.059188 0.216280
-0.023856 -0.058705 0.220758
-0.017113 -0.058069 0.228228
0.139527 0.226169 -0.025694
0.131775 0.224666 -0.028572
0.124114 0.222803 -0.031409
0.116014 0.220574 -0.034426
0.191052 0.233112 -0.006527
0.184034 0.232777 -0.009122
0.147237 0.227716 -0.022818
0.198057 0.233401 -0.003914
0.040349 -0.053095 0.301879
0.046727 -0.052964 0.304218
0.053069 -0.052791 0.305933
0.059449 -0.052707 0.306895
0.065992 -0.052764 0.307096
0.072351 -0.052664 0.307579
0.078742 -0.052615 0.308398
0.085136 -0.052547 0.309309
0.091624 -0.052607 0.308845
0.098028 -0.052687 0.307502
0.104426 -0.052605 0.308508
0.110847 -0.052492 0.310110
0.117263 -0.052483 0.310303
0.123769 -0.052520 0.309494
0.130146 -0.052565 0.309188
0.136542 -0.052553 0.309490
0.142981 -0.052537 0.309441
0.149408 -0.052522 0.308918
0.155826 -0.052585 0.308493
0.162273 -0.052573 0.308001
0.168690 -0.052538 0.308072
0.175100 -0.052576 0.308467
0.181541 -0.052461 0.308186
0.187958 -0.052547 0.308540
0.194389 -0.052588 0.308448
0.200803 -0.052664 0.307600
0.207260 -0.052732 0.306186
0.213742 -0.052795 0.304811
0.220129 -0.052977 0.303050
0.226429 -0.053130 0.301168
-0.017477 0.544276 -0.104109
0.427749 0.075442 -0.024233
0.365125 0.147600 0.103589
-0.313081 0.143445 0.279253
-0.424203 0.160523 0.207691
-0.139473 0.137542 0.148272
-0.126751 0.137465 0.147318
-0.120369 0.137478 0.148092
0.284147 -0.055501 0.265674
0.290647 -0.055688 0.262698
0.296861 -0.055969 0.261933
0.303495 -0.055852 0.260337
0.309874 -0.055977 0.258687
0.079718 0.217928 0.017137
-0.372383 0.070407 -0.042165
-0.279799 -0.094126 0.201515
0.053102 0.147363 0.170515
0.359602 0.044414 0.192499
-0.007510 -0.013358 -0.227971
0.108736 0.189675 -0.110200
0.290769 0.129617 0.177338
-0.088196 0.129058 0.159012
0.357233 0.151293 0.109822
-0.287298 0.188763 0.283767
-0.016738 -0.030843 -0.240982
0.445952 0.013156 0.091219
0.458585 0.004863 -0.005028
-0.038504 0.200356 -0.026014
0.405233 0.092622 -0.062793
-0.326517 0.179328 0.277300
-0.030242 0.517333 -0.079363
0.443949 -0.004986 0.110645
0.424857 0.075525 -0.037131
0.420270 0.038595 -0.101184
-0.287140 0.387069 0.115746
0.021318 0.556261 -0.125350
0.203644 0.232000 0.062316
-0.339324 0.035397 0.157225
-0.242549 0.378662 -0.101930
0.222834 0.229412 0.069295
-0.379709 -0.016433 -0.048122
0.380998 0.125519 0.109571
0.272960 0.216091 0.060179
0.327939 0.165179 0.126478
0.229262 0.231827 0.034958
-0.375215 0.374500 0.038476
-0.403830 0.011415 0.035120
0.237951 0.229701 0.028990
-0.272935 0.396902 -0.075939
-0.304201 0.451848 -0.180327
-0.295964 0.454018 -0.177442
-0.042024 0.522760 -0.084835
-0.049335 0.521732 -0.087747
-0.432107 0.203683 0.091937
-0.252098 0.380903 0.137516
-0.389222 0.098043 0.015475
-0.326753 0.396369 -0.178885
-0.261778 -0.049571 0.223742
-0.255074 -0.049249 0.227250
-0.248770 -0.049123 0.229125
-0.242335 -0.048991 0.230717
-0.235856 -0.048827 0.231903
-0.229528 -0.048865 0.232491
-0.223101 -0.048771 0.233045
-0.216672 -0.048895 0.232590
-0.210294 -0.048726 0.231684
-0.203837 -0.049123 0.229167
-0.197389 -0.049156 0.228026
-0.190957 -0.049109 0.228927
-0.184519 -0.048997 0.230534
-0.178111 -0.048885 0.232207
-0.171724 -0.048806 0.233328
-0.165295 -0.048765 0.233974
-0.158868 -0.048694 0.234832
-0.152450 -0.048682 0.234960
-0.146053 -0.048698 0.234780
-0.139653 -0.048774 0.233960
-0.133290 -0.048916 0.232183
-0.126727 -0.049106 0.229328
-0.120243 -0.049353 0.226158
-0.113805 -0.049597 0.222949
-0.107719 -0.050063 0.218737
-0.101072 -0.050193 0.215369
-0.094660 -0.050180 0.215480
-0.088180 -0.049965 0.218340
-0.081758 -0.049784 0.220811
-0.075348 -0.049587 0.223275
-0.069010 -0.049653 0.223066
-0.062558 -0.049838 0.219324
-0.055945 -0.049860 0.218511
-0.049730 -0.049789 0.217814
-0.043259 -0.049782 0.219012
-0.036798 -0.049598 0.221476
-0.030341 -0.049466 0.223041
-0.023825 -0.049441 0.223965
-0.016853 -0.049106 0.228227
0.218232 0.233009 0.003452
0.224815 0.232270 0.005898
0.231118 0.231352 0.008181
0.237367 0.230119 0.010469
0.249306 0.226843 0.014833
0.243282 0.228372 0.012643
0.205029 0.233529 -0.001318
0.211633 0.233272 0.001066
0.266491 0.220279 0.021153
0.046712 -0.044292 0.300429
0.052988 -0.044050 0.302330
0.059577 -0.044077 0.304106
0.065915 -0.043917 0.305204
0.072373 -0.043850 0.306559
0.078751 -0.043771 0.307576
0.085169 -0.043714 0.308409
0.091528 -0.043780 0.307299
0.098026 -0.043926 0.305164
0.104392 -0.043762 0.307258
0.110850 -0.043631 0.309336
0.117286 -0.043626 0.309906
0.123710 -0.043617 0.309502
0.130150 -0.043669 0.309205
0.136589 -0.043666 0.308876
0.143007 -0.043698 0.308035
0.149460 -0.043701 0.307360
0.155839 -0.043780 0.306936
0.162279 -0.043789 0.306335
0.168679 -0.043879 0.305947
0.175124 -0.043836 0.305494
0.181561 -0.043777 0.305010
0.187972 -0.043840 0.304791
0.194374 -0.043931 0.304544
0.200801 -0.043986 0.303773
0.207203 -0.044085 0.302857
0.213645 -0.044129 0.301426
0.220126 -0.044174 0.300051
0.226492 -0.044356 0.298313
0.232942 -0.044482 0.296078
0.239337 0.130131 0.187810
-0.113948 0.440191 -0.022634
0.209808 0.234056 0.027870
-0.113991 0.430704 -0.019083
-0.107726 0.430659 -0.021097
-0.152408 0.128756 0.159431
-0.396525 0.045846 0.060508
-0.291711 0.413582 -0.307507
0.290626 -0.046976 0.258836
0.296969 -0.047104 0.258484
0.303501 -0.047097 0.257866
0.309780 -0.047199 0.257416
0.316126 -0.047262 0.255809
-0.236632 0.391218 0.049432
-0.313062 0.170658 0.283843
0.040070 0.147498 0.166018
0.415582 0.093477 0.052815
0.437477 0.030653 -0.069119
-0.390406 0.097857 0.034634
-0.203681 0.129399 0.179989
0.426792 0.066219 -0.049799
-0.011253 0.545894 -0.101967
0.034733 0.204511 -0.008573
-0.422108 0.194145 0.002091
0.449465 0.013483 0.072047
0.421442 0.011469 -0.107817
0.431718 0.012362 0.123485
0.111090 0.478091 -0.190686
0.136653 0.174428 0.171771
0.053003 0.165115 0.152822
-0.225404 0.375913 -0.208912
0.428192 0.075757 -0.017877
0.428569 0.039173 -0.081986
-0.238831 0.372778 -0.100503
-0.386369 0.140574 -0.049417
-0.255867 0.389233 0.014685
0.182999 0.232206 0.054831
0.210250 0.231551 0.064719
-0.090255 0.208455 -0.064115
0.377136 0.131242 0.108135
0.278536 0.213574 0.062226
0.120802 0.218680 0.097175
0.235246 0.230208 0.037162
0.031654 0.190690 0.084344
-0.403767 0.011454 0.041516
0.231968 0.231320 0.026800
-0.268183 0.393312 -0.074393
-0.019472 0.087716 -0.181243
-0.294758 0.391745 0.038140
-0.184710 0.367615 0.124330
-0.359670 0.069822 -0.068041
-0.420749 0.194935 0.149721
-0.287436 -0.041563 0.209841
-0.280953 -0.041428 0.211360
-0.016559 0.182006 -0.074486
-0.022692 0.182347 -0.076850
-0.261610 -0.040499 0.223431
-0.255248 -0.040235 0.226825
-0.248752 -0.040064 0.229105
-0.242391 -0.039938 0.230906
-0.235861 -0.039766 0.232931
-0.229515 -0.039688 0.233999
-0.223067 -0.039594 0.234475
-0.216672 -0.039653 0.233645
-0.210328 -0.039899 0.231777
-0.203749 -0.040121 0.229475
-0.197425 -0.040086 0.229427
-0.191005 -0.040020 0.230398
-0.184573 -0.039933 0.230872
-0.178144 -0.039945 0.230800
-0.171718 -0.039892 0.231535
-0.165290 -0.039847 0.232277
-0.158876 -0.039795 0.233084
-0.152460 -0.039786 0.233161
-0.146021 -0.039770 0.232606
-0.139616 -0.039868 0.231685
-0.133183 -0.040005 0.230014
-0.126832 -0.040217 0.227428
-0.120461 -0.040483 0.224037
-0.113749 -0.040740 0.219888
-0.107324 -0.040974 0.216791
-0.101095 -0.041133 0.215238
-0.094675 -0.041050 0.216098
-0.088169 -0.040956 0.217463
-0.081779 -0.040758 0.220071
-0.075449 -0.040595 0.222245
-0.068963 -0.040679 0.221114
-0.062514 -0.040714 0.219823
-0.056077 -0.040506 0.220148
-0.049682 -0.040555 0.221614
-0.043218 -0.040211 0.224541
-0.036838 -0.040340 0.225035
-0.030325 -0.040251 0.224518
-0.024058 -0.040354 0.224103
-0.017561 -0.040245 0.226751
-0.011100 -0.039707 0.234072
0.294522 0.208005 0.031539
0.288980 0.210606 0.029463
0.283368 0.213028 0.027376
0.277763 0.215468 0.025298
0.272386 0.218314 0.023329
0.260866 0.222604 0.019073
0.255180 0.224871 0.017017
0.299892 0.205128 0.033483
-0.292034 0.463357 -0.194540
0.053153 -0.035378 0.299585
0.059480 -0.035192 0.301403
0.065950 -0.035095 0.303521
0.072307 -0.034921 0.305320
0.078782 -0.034877 0.306618
0.085184 -0.034809 0.307499
0.091522 -0.034884 0.306550
0.098058 -0.035019 0.304877
0.104458 -0.034877 0.306636
0.110865 -0.034746 0.308340
0.117296 -0.034715 0.309028
0.123715 -0.034695 0.309130
0.130146 -0.034691 0.308595
0.136588 -0.034750 0.307884
0.143055 -0.034766 0.306704
0.149417 -0.034897 0.306019
0.155895 -0.034865 0.305043
0.162222 -0.035034 0.304846
0.168694 -0.035012 0.303837
0.175131 -0.035015 0.303198
0.181555 -0.035075 0.302378
0.187934 -0.035210 0.301335
0.194412 -0.035184 0.300118
0.200838 -0.035233 0.299306
0.207237 -0.035337 0.298392
0.213706 -0.035349 0.297021
0.220039 -0.035580 0.295878
0.226506 -0.035602 0.294522
0.232903 -0.035744 0.292892
0.239295 -0.035854 0.291280
0.245669 -0.035994 0.289589
0.179517 -0.036558 -0.276976
-0.126800 0.430576 -0.016036
0.414920 0.084357 0.091415
0.107323 0.458598 -0.171177
0.216529 0.230343 0.066987
-0.325719 0.287730 0.251271
0.290688 -0.038144 0.255143
0.297001 -0.038294 0.254673
0.303544 -0.038341 0.255091
0.309877 -0.038306 0.255115
0.316262 -0.038306 0.253865
-0.280419 0.386735 0.118093
-0.319404 0.287871 0.251438
0.046608 0.147459 0.169081
-0.274583 0.323658 0.217459
0.402836 0.092526 -0.069239
-0.328807 0.441128 -0.217680
0.104492 0.174466 0.164817
-0.126776 0.128628 0.156134
-0.027117 0.196072 -0.021892
-0.280912 0.188731 0.282956
0.149422 0.183188 0.162832
0.450232 0.013525 0.065618
0.453766 0.013578 -0.030644
-0.403155 0.020163 0.054296
0.444527 0.004071 0.104110
0.398794 0.108082 0.097940
-0.316417 0.360505 0.173434
0.338951 0.147697 -0.092033
-0.419850 0.134260 0.175745
-0.415914 0.291545 0.065707
0.424323 0.066482 0.091317
-0.263663 -0.027823 -0.166557
-0.349305 0.384031 0.047283
0.315181 0.189617 0.094105
-0.083539 0.208211 -0.061667
0.373273 0.136926 0.106679
0.289150 0.207498 0.066145
-0.225422 0.371969 0.156603
0.313688 0.195995 0.066052
0.131577 0.211435 0.119820
0.087089 0.215860 -0.026587
0.212845 0.233946 0.019821
0.219141 0.233156 0.022101
-0.263116 0.389086 -0.072179
-0.308893 0.391102 0.033169
0.134911 0.035866 0.238098
-0.356377 0.069539 -0.074308
-0.384649 0.071216 0.002730
-0.293958 -0.032594 0.208377
-0.287378 -0.032387 0.210555
-0.280948 -0.032324 0.211351
-0.274468 -0.032187 0.213733
-0.268026 -0.031864 0.217692
-0.388576 0.273080 -0.024038
-0.255289 -0.031269 0.225308
-0.248818 -0.031102 0.227637
-0.242342 -0.030933 0.229945
-0.235873 -0.030791 0.232199
-0.229516 -0.030685 0.233298
-0.223105 -0.030626 0.234130
-0.216682 -0.030685 0.233310
-0.210261 -0.030683 0.232746
-0.203835 -0.030681 0.233048
-0.197406 -0.030683 0.233333
-0.190993 -0.030694 0.233260
-0.184562 -0.030738 0.232642
-0.178206 -0.030829 0.231425
-0.171723 -0.030942 0.229988
-0.165314 -0.031012 0.229651
-0.158888 -0.031020 0.229642
-0.152454 -0.030957 0.229377
-0.146035 -0.030973 0.229304
-0.139596 -0.031026 0.228541
-0.133256 -0.031220 0.226542
-0.126615 -0.031361 0.223142
-0.120076 -0.031586 0.220209
-0.113684 -0.031773 0.217744
-0.107397 -0.031899 0.216655
-0.101043 -0.031924 0.216453
-0.094644 -0.031989 0.215943
-0.088287 -0.031947 0.216439
-0.081807 -0.031725 0.219428
-0.075348 -0.031532 0.221692
-0.068861 -0.031443 0.222200
-0.062536 -0.031486 0.222668
-0.056049 -0.031265 0.223771
-0.049662 -0.031123 0.226537
-0.043230 -0.030922 0.227745
-0.036823 -0.031014 0.226916
-0.030412 -0.031133 0.226391
-0.023904 -0.031191 0.225385
-0.017549 -0.031228 0.225845
-0.010823 -0.031017 0.230577
0.305240 0.202193 0.035449
0.310565 0.199213 0.037424
0.315880 0.196181 0.039378
0.321061 0.192944 0.041341
0.326117 0.189393 0.043188
0.331215 0.186098 0.045152
0.336193 0.182392 0.046985
0.345745 0.174331 0.050566
0.340949 0.178230 0.048738
0.053150 -0.026646 0.295794
0.059577 -0.026458 0.298827
0.065994 -0.026322 0.301107
0.072351 -0.026168 0.302794
0.078846 -0.026085 0.304177
0.085174 -0.025951 0.305296
0.091679 -0.026076 0.305586
0.098063 -0.026076 0.304843
0.104436 -0.025959 0.305299
0.110870 -0.025875 0.306261
0.117282 -0.025852 0.306874
0.123729 -0.025798 0.307045
0.130149 -0.025783 0.307098
0.136573 -0.025883 0.306782
0.143024 -0.025895 0.305563
0.149428 -0.025980 0.304657
0.155863 -0.026038 0.303817
0.162263 -0.026088 0.303016
0.168697 -0.026143 0.302276
0.175113 -0.026207 0.301384
0.181557 -0.026244 0.300073
0.187999 -0.026313 0.298613
0.194332 -0.026460 0.297426
0.200829 -0.026496 0.296111
0.207246 -0.026579 0.294568
0.213621 -0.026779 0.292801
0.219991 -0.026980 0.291099
0.226447 -0.027007 0.289677
0.232914 -0.027026 0.288295
0.239296 -0.027148 0.287366
0.245751 -0.027172 0.285959
0.252150 -0.027335 0.283608
0.169114 0.233002 0.031327
-0.280880 0.143522 0.281565
-0.287302 0.143458 0.282599
-0.293765 0.143496 0.282492
-0.300200 0.143503 0.281636
0.290633 -0.029343 0.251938
0.297066 -0.029368 0.251806
0.303465 -0.029437 0.252202
0.309906 -0.029375 0.252337
0.316313 -0.029407 0.251645
-0.094654 0.128769 0.159405
0.157235 0.159103 -0.142189
0.020713 0.147048 0.155495
-0.280987 0.323684 0.219863
-0.213751 0.387339 0.085585
-0.255741 0.440287 -0.429883
0.403147 0.064870 -0.107591
0.442148 0.040252 0.046359
0.078780 0.174113 0.155107
-0.274444 0.188705 0.280736
0.143019 0.183349 0.162973
0.451394 0.013462 0.059129
0.456196 0.013758 -0.005024
0.112408 0.526883 -0.235570
0.098027 0.174531 0.162509
-0.139593 0.393003 0.004049
-0.281138 0.314512 0.226902
0.104106 0.448784 -0.171460
-0.412478 0.133939 0.137261
-0.135536 0.197408 -0.103050
0.277782 0.120587 0.184090
0.416777 0.093245 0.039933
-0.034732 0.164241 0.117836
0.309907 0.192726 0.092146
0.109396 0.223869 0.009434
0.360793 0.152514 0.101957
0.283642 0.210202 0.064124
-0.210049 0.361455 0.162425
0.323991 0.189348 0.069877
-0.282539 0.392740 0.070458
0.079086 0.213317 -0.029540
0.095151 0.218249 -0.023607
0.206224 0.234396 0.017412
-0.244274 0.372348 -0.064933
-0.258565 0.384583 -0.070463
-0.065808 0.169322 0.125635
-0.208307 0.388630 0.031619
-0.340937 0.154357 -0.089565
-0.428050 0.142385 0.047235
-0.293950 -0.023473 0.208370
-0.287475 -0.023292 0.210786
-0.281128 -0.023285 0.211869
-0.274506 -0.023120 0.212943
-0.268206 -0.022955 0.214867
-0.262212 -0.023477 0.218675
-0.255196 -0.022417 0.222671
-0.248760 -0.022234 0.225075
-0.242297 -0.022085 0.227414
-0.235983 -0.021846 0.230129
-0.229543 -0.021726 0.231762
-0.223050 -0.021680 0.232949
-0.216679 -0.021626 0.233286
-0.210249 -0.021567 0.234026
-0.203836 -0.021561 0.234118
-0.197421 -0.021559 0.234118
-0.190998 -0.021575 0.234032
-0.184605 -0.021638 0.233169
-0.178191 -0.021827 0.230798
-0.171757 -0.022042 0.228188
-0.165303 -0.022124 0.226148
-0.158881 -0.022135 0.226106
-0.152468 -0.022079 0.226654
-0.145999 -0.022094 0.226462
-0.139458 -0.022161 0.225320
-0.133073 -0.022281 0.223973
-0.126647 -0.022464 0.221448
-0.120187 -0.022576 0.219908
-0.113846 -0.022658 0.218900
-0.107386 -0.022475 0.217996
-0.101054 -0.022836 0.216529
-0.094653 -0.022936 0.215369
-0.088226 -0.022899 0.216117
-0.081819 -0.022707 0.218635
-0.075246 -0.022471 0.221487
-0.068916 -0.022338 0.223385
-0.062399 -0.022130 0.225378
-0.056087 -0.022023 0.227386
-0.049636 -0.021884 0.228767
-0.043218 -0.021848 0.228453
-0.036846 -0.021986 0.227071
-0.030419 -0.022074 0.226576
-0.023997 -0.022161 0.225884
-0.017539 -0.022145 0.225736
-0.011113 -0.022031 0.227566
-0.004949 -0.021699 0.231125
0.386247 0.133297 0.065853
0.382053 0.138352 0.064236
0.377817 0.143368 0.062626
0.373434 0.147941 0.060902
0.368998 0.152777 0.059269
0.359791 0.161499 0.055779
0.350451 0.170067 0.052319
0.355139 0.165815 0.054059
0.364425 0.157164 0.057539
0.059622 -0.017835 0.294148
0.066195 -0.017547 0.297473
0.072355 -0.017380 0.299033
0.078773 -0.017455 0.299693
0.085193 -0.017277 0.301303
0.091619 -0.017175 0.302821
0.098008 -0.017104 0.302991
0.104441 -0.017121 0.302969
0.110850 -0.017066 0.303094
0.117315 -0.017107 0.303649
0.123706 -0.016997 0.303939
0.130130 -0.017064 0.304401
0.136571 -0.017021 0.303886
0.143000 -0.017055 0.303132
0.149431 -0.017119 0.302331
0.155855 -0.017118 0.301700
0.162231 -0.017280 0.301257
0.168707 -0.017277 0.300017
0.175118 -0.017346 0.299155
0.181563 -0.017378 0.297797
0.187970 -0.017477 0.296861
0.194446 -0.017503 0.295491
0.200791 -0.017695 0.293702
0.207186 -0.017892 0.291248
0.213609 -0.018030 0.288293
0.219980 -0.018331 0.285686
0.226416 -0.018412 0.284211
0.232828 -0.018522 0.283335
0.239263 -0.018583 0.282548
0.245710 -0.018543 0.281219
0.252140 -0.018644 0.278975
0.176134 0.233304 0.033900
0.388885 0.113689 0.112573
0.055854 0.174640 0.140455
-0.404169 0.274268 0.149327
-0.275827 0.392380 0.072843
0.290590 -0.020500 0.249351
0.297085 -0.020486 0.249428
0.303521 -0.020499 0.250294
0.309857 -0.020506 0.250460
0.316230 -0.020527 0.249794
0.294483 0.204537 0.068115
-0.313101 0.260954 0.267730
0.027140 0.147247 0.159558
-0.254932 0.322810 0.205925
-0.298384 0.494488 -0.372450
0.168663 0.121871 0.209207
0.278827 0.165462 0.154826
-0.332183 0.269907 0.262328
-0.145354 0.318237 0.002802
-0.061251 0.199206 -0.072370
0.123816 0.183188 0.160468
0.450502 0.022443 -0.030640
0.456169 0.013732 -0.011422
-0.171856 0.373697 0.035695
0.124880 0.227004 0.015100
-0.325801 0.278988 0.257033
-0.300214 0.314711 0.231132
0.316226 0.193458 0.076172
-0.028053 0.469163 -0.099508
-0.070543 0.206413 -0.056747
-0.176937 0.375572 0.052395
-0.169481 0.424057 -0.019724
-0.262079 0.392374 0.077664
0.304575 0.195642 0.090161
0.117123 0.225501 0.012265
-0.400758 -0.014559 0.080085
0.403258 0.095352 0.108766
-0.375919 0.370126 0.095438
0.328894 0.185603 0.071728
0.228955 0.201756 0.136132
0.409668 0.088981 0.102009
0.103228 0.220536 -0.020608
0.401383 0.107009 0.089713
-0.386126 -0.015995 -0.035494
-0.422055 0.195070 0.175427
-0.278930 0.392226 0.081067
-0.317358 0.380126 -0.044691
0.054775 0.589858 -0.174957
-0.416801 0.134106 0.150095
-0.293734 -0.015062 0.208043
-0.287419 -0.014162 0.210658
-0.281011 -0.014068 0.212379
-0.274443 -0.013991 0.213588
-0.268175 -0.013925 0.214112
-0.261633 -0.013796 0.216152
-0.255308 -0.013566 0.218848
-0.248823 -0.013360 0.221970
-0.242286 -0.013228 0.224954
-0.235969 -0.012965 0.227651
-0.229369 -0.012895 0.230341
-0.223048 -0.012764 0.231417
-0.216668 -0.012673 0.232291
-0.210268 -0.012579 0.232674
-0.203831 -0.012562 0.233287
-0.197400 -0.012529 0.232794
-0.191000 -0.012640 0.232380
-0.184540 -0.012700 0.231030
-0.178131 -0.012869 0.228580
-0.171716 -0.013058 0.226105
-0.165303 -0.013153 0.224699
-0.158886 -0.013129 0.225286
-0.152472 -0.013013 0.226976
-0.146029 -0.012922 0.228358
-0.139545 -0.013060 0.226547
-0.133107 -0.013256 0.223885
-0.126689 -0.013366 0.222148
-0.120263 -0.013427 0.221302
-0.113941 -0.013548 0.219410
-0.107475 -0.013732 0.217033
-0.101143 -0.014034 0.215436
-0.094669 -0.013901 0.214595
-0.088245 -0.013853 0.215450
-0.081883 -0.013667 0.217981
-0.075188 -0.013437 0.221374
-0.068890 -0.013225 0.224141
-0.062434 -0.013057 0.226416
-0.055989 -0.012945 0.227817
-0.049572 -0.012875 0.228423
-0.043228 -0.012906 0.228055
-0.036818 -0.012884 0.227905
-0.030394 -0.012858 0.227887
-0.023968 -0.012908 0.227092
-0.017551 -0.012951 0.227349
-0.011114 -0.012906 0.228251
-0.004741 -0.012788 0.230042
0.000847 -0.012534 0.232667
0.080959 0.218603 0.036148
0.390425 0.127883 0.067377
0.394466 0.122276 0.068869
0.398355 0.116502 0.070300
0.406041 0.104466 0.073077
0.413596 0.092282 0.075851
0.072888 0.216284 0.033232
0.409842 0.098178 0.074422
0.402262 0.110323 0.071671
0.065899 -0.008891 0.290599
0.072429 -0.008950 0.293392
0.078792 -0.008830 0.293551
0.084895 -0.008624 0.294152
0.091590 -0.008485 0.296836
0.098057 -0.008545 0.298822
0.104460 -0.008426 0.299018
0.110882 -0.008479 0.298949
0.117303 -0.008441 0.298991
0.123717 -0.008408 0.299756
0.130135 -0.008273 0.299959
0.136553 -0.008326 0.299883
0.142985 -0.008414 0.299708
0.149402 -0.008474 0.298911
0.155828 -0.008426 0.298346
0.162240 -0.008537 0.298096
0.168645 -0.008629 0.297223
0.175072 -0.008642 0.296524
0.181517 -0.008617 0.295905
0.187926 -0.008687 0.294401
0.194442 -0.008692 0.292394
0.200778 -0.008954 0.289830
0.207178 -0.009194 0.286656
0.213620 -0.009349 0.283612
0.219920 -0.009573 0.281115
0.226343 -0.009843 0.279370
0.232832 -0.009815 0.278032
0.239234 -0.009936 0.277158
0.245624 -0.010075 0.275549
0.252070 -0.010130 0.273360
0.258392 -0.010369 0.270915
0.418811 0.084485 0.072095
0.433055 0.066913 0.020664
-0.152443 0.383768 0.011376
0.284105 -0.011316 0.251814
0.290513 -0.011509 0.248451
0.297043 -0.011550 0.248374
0.303452 -0.011568 0.248850
0.309871 -0.011542 0.248980
0.316220 -0.011667 0.247400
-0.293777 0.152629 0.285724
-0.036842 0.146252 0.141504
0.033636 0.147305 0.162722
-0.300251 0.161698 0.286539
-0.225132 0.516896 -0.433873
0.112977 0.468258 -0.190557
0.205002 0.208686 0.127531
-0.338195 0.269881 0.260962
-0.023811 0.517237 -0.084685
-0.275900 0.387974 -0.039315
0.130199 0.183381 0.161413
0.451571 0.022587 -0.024274
0.454699 0.013684 -0.024253
0.013998 0.190407 0.068545
-0.300129 0.179771 0.286420
-0.332073 0.278674 0.256616
-0.293849 0.314628 0.230244
-0.039720 0.167774 0.115898
-0.205011 0.340537 0.164465
-0.351333 0.233876 0.274765
-0.345150 0.206926 0.282198
-0.298496 0.521488 -0.398433
-0.268389 0.393151 0.075394
0.320129 0.185899 0.095943
0.102081 0.222578 0.006749
-0.075145 0.204935 -0.067932
0.399509 0.101666 0.107356
-0.272480 0.390601 0.102110
0.318772 0.192546 0.067931
0.308371 0.199001 0.064097
0.406147 0.095346 0.100649
0.110907 0.222398 -0.017782
0.405118 0.100670 0.091070
-0.253773 0.380608 -0.068637
-0.249164 0.376189 -0.066846
0.239965 0.188917 0.149353
-0.365845 0.378456 0.041618
0.108163 0.021881 0.267386
0.244658 0.184961 0.151424
-0.122804 0.066951 -0.187073
-0.287517 -0.005119 0.210057
-0.280875 -0.004961 0.212805
-0.274390 -0.004868 0.214179
-0.268043 -0.004847 0.214436
-0.261606 -0.004862 0.214411
-0.255297 -0.004705 0.215618
-0.248718 -0.004598 0.218444
-0.242486 -0.004254 0.221355
-0.235979 -0.004110 0.224410
-0.229425 -0.004013 0.227331
-0.223025 -0.003945 0.228873
-0.216607 -0.003929 0.229568
-0.210260 -0.003751 0.229996
-0.203830 -0.003834 0.230442
-0.197402 -0.003712 0.230102
-0.191022 -0.003823 0.229821
-0.184623 -0.003955 0.228107
-0.178163 -0.004065 0.225832
-0.171721 -0.004171 0.224191
-0.165297 -0.004130 0.224313
-0.158870 -0.004027 0.225846
-0.152400 -0.003823 0.228577
-0.146030 -0.003735 0.229905
-0.139634 -0.003783 0.229088
-0.133044 -0.004137 0.225541
-0.126473 -0.004232 0.222792
-0.120330 -0.004351 0.221146
-0.113711 -0.004563 0.218388
-0.107420 -0.004682 0.216454
-0.100998 -0.004790 0.214363
-0.094668 -0.004902 0.213241
-0.088274 -0.004843 0.214008
-0.081768 -0.004668 0.216848
-0.075266 -0.004489 0.219932
-0.068736 -0.004300 0.222904
-0.062423 -0.004162 0.224766
-0.056022 -0.004020 0.226410
-0.049687 -0.003897 0.227574
-0.043245 -0.003859 0.228252
-0.036770 -0.003795 0.228522
-0.030403 -0.003781 0.229028
-0.023986 -0.003659 0.230604
-0.017534 -0.003539 0.231899
-0.011150 -0.003548 0.232217
-0.004670 -0.003602 0.232178
0.001635 -0.003528 0.229385
0.008102 -0.004286 0.229229
-0.255443 0.381834 -0.041218
-0.120510 0.235751 0.019275
-0.030951 0.196374 0.052234
-0.019387 0.192141 0.056478
0.086068 0.210420 0.094123
0.175162 0.210106 0.126147
0.217494 0.198802 0.141468
0.205506 0.202238 0.137128
0.181180 0.208500 0.128394
0.072314 -0.000157 0.285275
0.078833 -0.000390 0.286507
0.085230 -0.000318 0.285847
0.091470 0.000143 0.286991
0.098077 -0.000235 0.291146
0.104476 0.000091 0.292742
0.110920 -0.000057 0.293295
0.117292 0.000236 0.292928
0.123736 0.000118 0.294205
0.130130 0.000332 0.294451
0.136567 0.000297 0.294425
0.142981 0.000175 0.294262
0.149399 -0.000031 0.293952
0.155830 0.000091 0.293417
0.162248 0.000072 0.293374
0.168659 0.000089 0.292695
0.175021 -0.000089 0.292425
0.181380 0.000292 0.290906
0.187900 -0.000058 0.289657
0.194218 -0.000345 0.287856
0.200656 -0.000467 0.284855
0.207163 -0.000501 0.282002
0.213532 -0.000733 0.279564
0.220003 -0.000821 0.276611
0.226371 -0.001086 0.274139
0.232790 -0.001239 0.271806
0.239160 -0.001528 0.270054
0.245536 -0.001760 0.268334
0.252030 -0.001644 0.266322
0.258320 -0.001919 0.264542
-0.198819 0.382072 0.100293
0.331046 0.182276 0.081683
0.337392 0.173644 0.093224
0.284031 -0.002482 0.249905
0.290617 -0.002533 0.247707
0.297073 -0.002584 0.246862
0.303433 -0.002628 0.247213
0.309864 -0.002646 0.246696
0.316223 -0.002792 0.245014
-0.043251 0.146464 0.142572
0.143059 0.148230 0.192950
-0.306597 0.161724 0.285270
-0.388513 0.071530 0.028367
-0.265985 -0.129974 0.188715
-0.036660 0.517031 -0.076202
0.232866 0.165751 0.172906
0.417973 0.074909 -0.056270
0.024184 0.173586 0.119715
0.136626 0.183240 0.162888
0.443167 0.022225 0.084936
0.401555 0.010027 -0.133307
-0.260653 0.385058 0.125045
-0.287318 0.179823 0.285586
-0.338490 0.278802 0.254569
-0.287557 0.314384 0.229118
0.229506 0.230613 0.053377
0.405319 0.043913 0.145742
-0.338656 0.234094 0.279574
0.411562 0.065512 -0.082021
0.412404 0.092892 -0.043484
0.140034 0.016838 0.278704
0.325016 0.182129 0.097760
0.093961 0.220446 0.003778
-0.068818 0.203709 -0.065518
0.380520 0.131974 0.100248
0.007233 0.174550 0.104137
-0.323764 0.380261 -0.028193
0.297465 0.204473 0.060055
0.402493 0.101736 0.099299
0.118640 0.224062 -0.014940
0.243891 0.227922 0.031160
0.249832 0.226117 0.033347
0.255463 0.223773 0.035416
0.261324 0.221743 0.037609
0.266714 0.218995 0.039573
-0.070167 0.206342 0.047394
-0.165520 0.350877 0.066461
-0.385886 0.255109 -0.042888
-0.287513 0.003899 0.208396
-0.280942 0.004043 0.211389
-0.274475 0.004127 0.212862
-0.268052 0.004192 0.213661
-0.261577 0.004139 0.213448
-0.255229 0.004217 0.213794
-0.248822 0.004337 0.215471
-0.242258 0.004445 0.218318
-0.235990 0.004709 0.220381
-0.229390 0.004700 0.223097
-0.223082 0.004888 0.224231
-0.216639 0.004913 0.224985
-0.210242 0.004942 0.225742
-0.203840 0.004917 0.225674
-0.197421 0.004898 0.224918
-0.190993 0.004900 0.224229
-0.184560 0.004905 0.222956
-0.178145 0.004800 0.222619
-0.171716 0.004808 0.222654
-0.165233 0.004781 0.223085
-0.158854 0.004977 0.225033
-0.152441 0.005149 0.227525
-0.146036 0.005189 0.228227
-0.139552 0.005238 0.228013
-0.132988 0.005058 0.225092
-0.126452 0.004864 0.221889
-0.120247 0.004657 0.219830
-0.113729 0.004533 0.217707
-0.107429 0.004405 0.216512
-0.100959 0.004227 0.214370
-0.094649 0.004170 0.213151
-0.088199 0.004177 0.213518
-0.081745 0.004260 0.215145
-0.075291 0.004431 0.217577
-0.068897 0.004604 0.220068
-0.062387 0.004675 0.222194
-0.055949 0.004781 0.223782
-0.049629 0.005000 0.225714
-0.043233 0.005149 0.227477
-0.036827 0.005262 0.229106
-0.030381 0.005317 0.230327
-0.023980 0.005394 0.231258
-0.017570 0.005460 0.231486
-0.011175 0.005323 0.230333
-0.004740 0.005109 0.227207
0.001683 0.004898 0.223640
0.008174 0.004896 0.224062
0.014496 0.005145 0.226901
0.245488 0.193940 0.142192
0.078800 0.185924 0.138774
-0.023198 0.190709 0.064592
0.196854 0.022817 0.260524
-0.402952 0.256516 0.136543
0.170422 0.016257 0.279843
0.216504 0.211942 0.122466
0.066184 0.007330 0.271786
0.073169 0.007863 0.275052
0.078915 0.007792 0.277855
0.085369 0.007755 0.278543
0.091659 0.008166 0.278120
0.098149 0.008331 0.280440
0.104587 0.008365 0.284128
0.110929 0.008534 0.285714
0.117314 0.008684 0.285855
0.123750 0.008524 0.286419
0.130174 0.008593 0.287196
0.136576 0.008705 0.287319
0.142999 0.008607 0.287216
0.149407 0.008766 0.286657
0.155823 0.008585 0.287175
0.162239 0.008724 0.287316
0.168643 0.008611 0.287201
0.175009 0.008511 0.286343
0.181495 0.008571 0.284217
0.187755 0.008143 0.283110
0.194200 0.008125 0.280942
0.200677 0.008113 0.278744
0.206996 0.007820 0.276973
0.213421 0.007685 0.273975
0.219947 0.007662 0.270325
0.226310 0.007334 0.267049
0.232809 0.007236 0.264042
0.239137 0.006953 0.262944
0.245656 0.007127 0.260970
0.251957 0.006849 0.259853
0.258337 0.006770 0.257547
0.264785 0.006734 0.254676
0.271249 0.006662 0.251653
0.277803 0.006652 0.249515
0.284222 0.006543 0.247827
0.290662 0.006445 0.246213
0.297005 0.006316 0.245658
0.303450 0.006274 0.245023
0.309810 0.006176 0.244164
0.316302 0.006092 0.242051
-0.049681 0.146380 0.143276
0.149449 0.148358 0.193125
-0.313152 0.161608 0.283300
-0.043269 0.154871 0.134750
-0.306532 0.341262 0.204975
-0.113907 0.163355 0.120079
0.226467 0.165847 0.173828
-0.402193 0.115481 0.081997
0.197164 0.234139 0.041602
0.346986 0.165616 0.096795
-0.094196 0.191891 -0.110578
-0.299802 0.343041 -0.248893
0.139986 0.229560 0.020644
-0.254421 -0.100213 0.211482
-0.344875 0.278783 0.251573
0.408034 0.092866 -0.055902
0.144292 0.230478 0.031436
0.437779 0.058043 -0.024289
-0.332211 0.234036 0.280879
-0.419814 0.134241 0.169328
-0.004811 0.554205 -0.113607
-0.122501 -0.015855 -0.197468
-0.277252 0.118474 -0.116308
-0.259829 0.392220 0.050504
0.329691 0.177864 0.099515
0.053978 0.209264 -0.010855
-0.062674 0.202514 -0.063426
0.376582 0.137600 0.098747
-0.096665 0.216804 0.009225
0.303021 0.201949 0.062118
0.041482 0.189425 0.097360
0.125965 0.225192 -0.012225
0.134099 0.227113 -0.009205
-0.024405 0.184929 -0.068037
-0.030630 0.186136 -0.070454
-0.427334 0.212039 0.034066
-0.395911 0.037259 0.073403
0.272416 0.216759 0.041658
0.008819 0.186168 0.076133
-0.269007 0.391520 0.093970
-0.287470 0.012822 0.205845
-0.281126 0.013055 0.208525
-0.274086 0.013125 0.210543
-0.268104 0.013157 0.211451
-0.261655 0.013190 0.212139
-0.255274 0.013230 0.212325
-0.248881 0.013310 0.213268
-0.242311 0.013353 0.215159
-0.235962 0.013466 0.216239
-0.229561 0.013621 0.217966
-0.223093 0.013666 0.219417
-0.216668 0.013695 0.220146
-0.210242 0.013689 0.220159
-0.203864 0.013835 0.219936
-0.197413 0.013718 0.219545
-0.190996 0.013742 0.219704
-0.184575 0.013721 0.220245
-0.178153 0.013769 0.220376
-0.171720 0.013718 0.220225
-0.165253 0.013711 0.220807
-0.158857 0.013913 0.223370
-0.152441 0.014077 0.225170
-0.146026 0.014147 0.225394
-0.139611 0.014069 0.225144
-0.133226 0.013848 0.222700
-0.126732 0.013727 0.219624
-0.120370 0.013605 0.218509
-0.113815 0.013603 0.217512
-0.107573 0.013395 0.216042
-0.101057 0.013306 0.213862
-0.094670 0.013199 0.212717
-0.088229 0.013203 0.212221
-0.081862 0.013317 0.213232
-0.075474 0.013455 0.214926
-0.068908 0.013463 0.216823
-0.062396 0.013515 0.219006
-0.055933 0.013603 0.220550
-0.049541 0.013790 0.223014
-0.043407 0.014179 0.225477
-0.036778 0.014145 0.227315
-0.030401 0.014253 0.228261
-0.023997 0.014241 0.228829
-0.017613 0.014121 0.228394
-0.011176 0.014003 0.225493
-0.004729 0.013851 0.222470
0.001711 0.013933 0.223350
0.008140 0.014107 0.225829
0.014633 0.014358 0.228090
0.021058 0.014346 0.230406
-0.011930 0.185982 0.068747
0.459423 -0.156872 0.092294
-0.009652 0.175391 0.088549
0.462900 -0.163084 0.093250
-0.179143 0.378745 0.042247
0.500583 -0.170130 0.107421
0.467998 -0.166846 0.095626
0.072334 0.016261 0.256813
0.444148 -0.032449 -0.101288
-0.426602 0.169091 0.181991
-0.434821 0.168660 0.079232
-0.145086 0.298455 0.002881
-0.263910 0.458598 -0.410775
0.110966 0.016824 0.275666
0.117371 0.016872 0.277170
0.123770 0.016813 0.277120
0.130172 0.016963 0.277952
0.136595 0.016874 0.278611
-0.228365 0.375444 -0.254037
-0.228334 0.436061 -0.337460
0.155831 0.016783 0.279260
0.162225 0.016833 0.279302
0.168588 0.016851 0.279298
0.174918 0.016590 0.278375
0.181235 0.016192 0.275915
0.187739 0.016363 0.273152
0.194124 0.016301 0.271620
0.200548 0.016143 0.270059
0.206874 0.015801 0.268294
0.213492 0.016018 0.263231
0.219943 0.015842 0.260068
0.226392 0.015877 0.258571
0.232817 0.015757 0.257570
0.239267 0.015880 0.256240
0.245607 0.015615 0.255849
0.252000 0.015720 0.254436
0.258452 0.015739 0.252393
0.264806 0.015605 0.250616
0.271225 0.015513 0.248951
0.277653 0.015483 0.247324
0.284157 0.015380 0.245836
0.290610 0.015314 0.244949
0.296985 0.015219 0.244021
0.303380 0.015131 0.243197
0.309743 0.015001 0.241627
0.316174 0.014841 0.239333
-0.056098 0.146444 0.143378
0.155859 0.148371 0.193142
-0.320123 0.161820 0.280389
-0.036837 0.154794 0.132330
-0.312922 0.341339 0.203439
-0.106747 0.163670 0.121280
0.220023 0.165616 0.174245
-0.288673 0.413537 -0.320362
0.193796 0.233529 0.049549
0.351730 0.161422 0.098575
-0.245565 0.240035 -0.110839
-0.165347 0.411982 -0.004851
0.255662 0.220786 0.072154
0.410047 0.056379 -0.101344
0.156158 0.230562 -0.001061
-0.325723 0.296709 0.244843
-0.100805 0.212983 -0.049019
0.409212 0.084003 0.110731
-0.319435 0.234210 0.280652
-0.307794 0.388475 -0.059817
0.001990 0.555252 -0.112273
-0.296284 0.117690 -0.106050
0.190291 0.222135 0.103722
0.334291 0.173490 0.101232
0.045891 0.206984 -0.013812
0.291147 0.203811 0.076077
0.372332 0.142610 0.097162
-0.126451 0.240542 0.064185
0.292119 0.207447 0.058075
0.050054 0.192219 0.100217
-0.239958 0.386619 0.113590
0.015343 0.176830 0.106940
-0.332680 0.375425 -0.031277
-0.107900 0.221390 0.005040
-0.122934 0.234075 0.065595
-0.330331 0.388295 0.044435
-0.304507 0.360023 -0.262234
0.278276 0.214762 0.043809
0.015846 0.186611 0.078691
-0.285661 0.462105 -0.192276
-0.281068 0.021922 0.205121
-0.274450 0.021885 0.207092
-0.268071 0.022054 0.208870
-0.261592 0.022126 0.210329
-0.255324 0.022241 0.210848
-0.248872 0.022330 0.212408
-0.242296 0.022370 0.214255
-0.236028 0.022415 0.214002
-0.229523 0.022476 0.215351
-0.223102 0.022609 0.217010
-0.216618 0.022555 0.217428
-0.210291 0.022666 0.217272
-0.203855 0.022697 0.218044
-0.197415 0.022709 0.218627
-0.190990 0.022825 0.219762
-0.184598 0.022836 0.220530
-0.178003 0.022811 0.218415
-0.171738 0.022627 0.217146
-0.165271 0.022596 0.218300
-0.158811 0.022734 0.220712
-0.152454 0.022942 0.221985
-0.146024 0.023041 0.222206
-0.139602 0.022973 0.222017
-0.133196 0.022820 0.219573
-0.126744 0.022627 0.217134
-0.120300 0.022621 0.216484
-0.113898 0.022580 0.216347
-0.107411 0.022533 0.215076
-0.101106 0.022337 0.213512
-0.094646 0.022223 0.211370
-0.088232 0.022158 0.210493
-0.081882 0.022264 0.210837
-0.075440 0.022307 0.212205
-0.068999 0.022515 0.214741
-0.062526 0.022587 0.216985
-0.056035 0.022539 0.217570
-0.049647 0.022690 0.219295
-0.043171 0.022839 0.222401
-0.036877 0.023095 0.224367
-0.030368 0.023021 0.225572
-0.023994 0.023072 0.224996
-0.017650 0.022953 0.223265
-0.011117 0.022777 0.221358
-0.004770 0.023024 0.222302
0.001711 0.023129 0.225050
0.008203 0.023294 0.227992
0.014633 0.023377 0.229559
0.020950 0.023485 0.230128
0.027408 0.023372 0.229642
0.033803 0.023325 0.228306
0.040230 0.023282 0.228223
-0.130152 0.246439 0.062703
-0.370535 0.374031 0.087560
0.222461 0.210093 0.124542
-0.248816 0.389792 0.017182
0.494957 -0.167576 0.105527
-0.091237 0.173073 0.116287
0.085404 0.024025 0.247798
-0.376447 0.106399 0.118403
-0.390603 0.175770 -0.062044
-0.428311 0.168679 0.111428
0.455538 0.013748 -0.017842
-0.241051 0.477024 -0.447823
-0.390611 0.045711 0.079755
-0.330293 0.423119 -0.204766
-0.338658 0.102700 0.233484
-0.309162 -0.168043 0.099852
0.103420 0.450884 -0.184700
-0.234496 0.406594 -0.164008
-0.228363 0.406009 -0.183245
0.112708 0.497564 -0.234524
0.459999 -0.031106 0.065659
-0.157722 0.327890 0.035070
-0.404143 -0.014656 0.035240
0.194079 0.024186 0.259278
0.200670 0.024192 0.255391
0.207199 0.024553 0.252543
0.213649 0.024303 0.251493
0.220088 0.024310 0.251361
0.226521 0.024431 0.252028
0.232922 0.024713 0.252408
0.239453 0.024338 0.252906
0.245688 0.024733 0.252264
0.252064 0.024747 0.251551
0.258419 0.024667 0.250491
0.264929 0.024659 0.248563
0.271339 0.024520 0.246854
0.277824 0.024490 0.245432
0.284152 0.024307 0.244197
0.290517 0.024242 0.243210
0.297019 0.024145 0.241893
0.303388 0.023994 0.240204
0.309725 0.023793 0.238428
-0.062546 0.146130 0.143732
0.162286 0.148384 0.193918
0.226008 0.232861 0.024618
-0.381729 0.281782 -0.036898
0.168674 0.130728 0.204467
-0.100221 0.163618 0.122969
0.213636 0.165892 0.173171
0.429177 0.002755 -0.101119
0.047419 0.208493 0.005392
0.437982 0.030875 0.091273
-0.289062 0.494687 -0.385202
-0.158925 0.412091 -0.003898
-0.049850 0.204903 -0.030158
